ply
    		format ascii 1.0
    		element vertex 49152
    		property float x
    		property float y
    		property float z
    		property uchar red
    		property uchar green
    		property uchar blue
    		end_header
1.281335 -0.336930 4.324603 155 161 153
1.278910 -0.356609 4.316419 131 140 134
1.275046 -0.375788 4.303377 114 118 116
1.272291 -0.395188 4.294079 153 151 138
1.265270 -0.413108 4.270382 244 241 232
1.259077 -0.431089 4.249482 254 254 249
1.250887 -0.448156 4.221838 254 255 251
1.242396 -0.464852 4.193181 255 255 252
1.233042 -0.480941 4.161609 204 210 207
1.220285 -0.495351 4.118556 157 181 195
1.206390 -0.508876 4.071658 145 167 181
1.195868 -0.523436 4.036146 67 71 68
1.185335 -0.537656 4.000595 56 58 58
1.175916 -0.552065 3.968806 53 56 58
1.165360 -0.565623 3.933178 67 75 81
1.153669 -0.578276 3.893719 78 89 96
1.139721 -0.589391 3.846645 86 101 108
1.125769 -0.600061 3.799557 79 92 100
1.110692 -0.609669 3.748669 69 80 88
1.096735 -0.619431 3.701564 74 86 94
1.082777 -0.628749 3.654454 81 94 102
1.071059 -0.638960 3.614905 86 99 106
1.058778 -0.648454 3.573456 77 90 94
1.046495 -0.657557 3.532001 74 86 89
1.038124 -0.668789 3.503747 75 86 90
1.026396 -0.677539 3.464164 75 85 89
1.015225 -0.686293 3.426462 86 98 104
1.004890 -0.695271 3.391581 86 98 106
0.991769 -0.701948 3.347295 74 84 91
0.983104 -0.711434 3.318050 111 120 125
0.715050 -0.528813 2.413347 113 121 127
0.692174 -0.522891 2.336139 103 110 115
0.682369 -0.526325 2.303049 97 102 107
0.673126 -0.529889 2.271850 92 97 103
0.664718 -0.533831 2.243474 86 90 95
0.657145 -0.538188 2.217913 82 84 88
0.650127 -0.542769 2.194229 78 79 83
0.642836 -0.546894 2.169620 73 74 78
0.636927 -0.551986 2.149678 71 72 75
0.632397 -0.558107 2.134389 64 65 68
0.627865 -0.564082 2.119094 60 61 65
0.625532 -0.571923 2.111217 57 58 62
0.623467 -0.579940 2.104248 51 52 56
0.621121 -0.587625 2.096330 49 49 54
0.618221 -0.594703 2.086544 42 44 48
0.616412 -0.602756 2.080439 33 37 40
0.614050 -0.610201 2.072466 31 35 39
0.612229 -0.618117 2.066318 33 38 41
0.612583 -0.628207 2.067514 20 24 28
0.609657 -0.634891 2.057638 26 29 35
0.605367 -0.640041 2.043160 31 33 42
0.599719 -0.643597 2.024097 115 129 139
0.515643 -0.561561 1.740334 131 139 144
0.514711 -0.568723 1.737189 138 143 146
0.506735 -0.567961 1.710270 147 154 155
0.499042 -0.567266 1.684305 119 124 127
0.492171 -0.567274 1.661113 88 90 97
0.488814 -0.571171 1.649786 93 102 112
0.484651 -0.574006 1.635735 103 117 128
0.481836 -0.578327 1.626234 110 124 135
0.478752 -0.582231 1.615826 109 124 136
0.476474 -0.587029 1.608135 108 124 137
0.474194 -0.591754 1.600440 107 123 134
0.470576 -0.594715 1.588229 106 123 134
0.467495 -0.598248 1.577831 103 120 131
0.464415 -0.601685 1.567437 102 118 129
0.461337 -0.605026 1.557049 99 115 125
0.458261 -0.608272 1.546667 99 114 124
0.455187 -0.611423 1.536291 95 110 121
0.452115 -0.614479 1.525924 93 108 117
0.449046 -0.617441 1.515564 90 107 115
0.445979 -0.620309 1.505212 89 106 114
0.442914 -0.623083 1.494870 87 104 112
0.440116 -0.626139 1.485426 86 103 111
0.436794 -0.628352 1.474214 84 101 109
0.434001 -0.631229 1.464787 84 101 109
0.430687 -0.633250 1.453600 83 98 107
0.427376 -0.635172 1.442427 82 96 104
0.423547 -0.636211 1.429505 80 93 101
0.421029 -0.639117 1.421007 79 92 99
0.908624 1.400021 3.116179 124 127 122
0.909598 1.386838 3.119519 102 98 89
0.913140 1.377499 3.131669 101 95 85
0.915648 1.366500 3.140269 102 96 86
0.918150 1.355413 3.148850 103 97 87
0.920646 1.344236 3.157412 105 98 88
0.922618 1.332221 3.164173 107 100 90
0.924581 1.320131 3.170907 109 103 92
0.927058 1.308701 3.179400 112 106 94
0.929267 1.296819 3.186977 115 109 97
0.932252 1.285935 3.197214 117 111 99
0.934186 1.273522 3.203845 121 115 104
0.936110 1.261034 3.210447 140 138 129
0.938551 1.249171 3.218816 144 142 134
0.941509 1.237909 3.228962 144 141 134
0.945514 1.227911 3.242696 139 141 142
0.950832 1.219468 3.260935 247 249 250
0.957469 1.212525 3.283699 255 255 255
0.968602 1.210987 3.321879 255 255 255
0.978163 1.207150 3.354668 255 255 255
0.987469 1.202694 3.386585 255 255 255
0.994928 1.195718 3.412166 255 255 255
1.001860 1.187875 3.435938 255 255 255
1.006931 1.177633 3.453331 255 255 255
1.011999 1.167224 3.470713 255 255 255
1.016531 1.156040 3.486253 255 255 255
1.021324 1.145004 3.502690 255 255 255
1.025844 1.133512 3.518194 255 255 255
1.031430 1.123034 3.537351 255 255 255
1.035136 1.110358 3.550059 255 255 255
1.040711 1.099539 3.569182 255 255 255
1.044671 1.086858 3.582760 255 255 255
1.049428 1.074867 3.599078 255 255 255
1.053371 1.061901 3.612600 255 255 255
1.057844 1.049333 3.627940 255 255 255
1.061229 1.035559 3.639548 254 255 254
1.065414 1.022444 3.653900 250 255 255
1.069318 1.008929 3.667291 245 255 255
1.073212 0.995278 3.680646 251 255 255
1.077096 0.981492 3.693965 255 255 255
1.080697 0.967328 3.706315 255 255 255
1.084014 0.952798 3.717692 255 255 255
1.087863 0.938620 3.730891 255 255 255
1.091700 0.924307 3.744050 255 255 255
1.096070 0.910313 3.759037 255 255 255
1.099064 0.895058 3.769305 255 255 255
1.102316 0.879912 3.780460 255 255 255
1.105555 0.864650 3.791567 244 254 254
1.108779 0.849272 3.802624 237 253 254
1.113084 0.834601 3.817388 251 254 254
1.118199 0.820385 3.834929 157 189 205
1.120283 0.803830 3.842076 127 166 188
1.123448 0.787965 3.852931 126 163 188
1.126597 0.771987 3.863731 124 160 187
1.130555 0.756449 3.877307 130 163 189
1.134774 0.740953 3.891776 140 172 181
1.138978 0.725312 3.906193 142 172 171
1.143166 0.709525 3.920557 141 169 171
1.147063 0.693426 3.933922 127 154 161
1.150115 0.676705 3.944389 152 176 181
1.154255 0.660508 3.958586 170 188 178
1.156165 0.642937 3.965137 182 202 166
1.158056 0.625294 3.971621 155 182 158
1.160757 0.608014 3.980885 128 154 151
1.163716 0.590778 3.991033 128 155 151
1.163328 0.571802 3.989704 124 151 149
1.164027 0.553355 3.992100 135 162 164
1.160539 0.532962 3.980138 141 169 172
1.149246 0.509224 3.941408 108 122 120
1.131247 0.482987 3.879678 71 73 69
1.113484 0.457428 3.818760 69 71 68
1.104863 0.436050 3.789192 72 74 71
1.102056 0.417152 3.779568 71 73 70
1.102010 0.399345 3.779411 72 74 71
1.100828 0.381146 3.775355 72 74 71
1.104640 0.364634 3.788427 71 73 72
1.107317 0.347642 3.797609 70 75 71
1.156281 0.344348 3.965534 136 159 131
1.214467 0.342072 4.165088 105 127 115
1.235543 0.328063 4.237368 117 141 131
1.242366 0.309819 4.260768 96 116 119
1.248330 0.291154 4.281222 109 131 134
1.250919 0.271565 4.290103 126 138 137
1.252087 0.251606 4.294109 199 203 196
1.254629 0.231863 4.302824 227 236 233
1.254908 0.211657 4.303783 206 219 221
1.254044 0.191267 4.300819 227 240 238
1.254273 0.171054 4.301604 197 211 207
1.255595 0.150966 4.306139 158 173 174
1.254654 0.130599 4.302911 158 169 171
1.254806 0.110358 4.303433 220 230 229
1.254933 0.090111 4.303868 236 242 239
1.253915 0.069796 4.300375 193 208 199
1.255110 0.049601 4.304474 157 185 169
1.253200 0.029296 4.297925 112 135 126
1.255184 0.009079 4.304728 110 130 126
1.255183 -0.011183 4.304724 114 134 131
1.256275 -0.031473 4.308471 114 134 133
1.255103 -0.051704 4.304451 109 126 127
1.256144 -0.072025 4.308022 110 127 128
1.254921 -0.092213 4.303827 172 183 182
1.257030 -0.112660 4.311061 255 255 254
1.256875 -0.132936 4.310529 255 255 255
1.257813 -0.153340 4.313746 255 255 255
1.257607 -0.173617 4.313038 224 224 215
1.259612 -0.194227 4.319915 193 193 177
1.259354 -0.214517 4.319031 159 161 150
1.261307 -0.235211 4.325728 85 92 94
1.262116 -0.255736 4.328501 120 122 116
1.262898 -0.276282 4.331184 175 174 158
1.263375 -0.296781 4.332821 170 171 157
1.262989 -0.317078 4.331495 160 163 152
1.263693 -0.337655 4.333912 144 150 143
1.261303 -0.357377 4.325713 127 134 127
1.257494 -0.376598 4.312650 116 119 115
1.253662 -0.395688 4.299509 185 183 172
1.246742 -0.413630 4.275777 255 255 254
1.239525 -0.431245 4.251024 255 255 255
1.231453 -0.448316 4.223342 255 255 255
1.224199 -0.465438 4.198465 255 255 254
1.214980 -0.481546 4.166848 231 236 234
1.202410 -0.495974 4.123736 142 164 175
1.188716 -0.509515 4.076773 165 192 210
1.177236 -0.523598 4.037401 66 72 70
1.165745 -0.537306 3.997992 62 66 66
1.156464 -0.551697 3.966163 42 46 48
1.147171 -0.565783 3.934292 70 78 83
1.134542 -0.577869 3.890979 78 89 96
1.121906 -0.589544 3.847644 80 94 101
1.108158 -0.600208 3.800494 77 90 98
1.093300 -0.609810 3.749538 71 82 89
1.079547 -0.619566 3.702371 77 90 96
1.065792 -0.628877 3.655199 78 91 99
1.053693 -0.638748 3.613704 80 93 101
1.041040 -0.647883 3.570309 76 88 95
1.030040 -0.657665 3.532583 74 85 89
1.021239 -0.668532 3.502402 79 90 94
1.009683 -0.677266 3.462767 79 91 95
0.998125 -0.685626 3.423131 84 97 105
0.988766 -0.695159 3.391032 84 95 101
0.975562 -0.701624 3.345748 71 81 86
0.967572 -0.711497 3.318346 101 112 117
0.706740 -0.531105 2.423808 114 122 128
0.682555 -0.523948 2.340862 100 107 113
0.671252 -0.526108 2.302098 95 100 106
0.662690 -0.530095 2.272734 89 94 100
0.653859 -0.533586 2.242447 85 89 93
0.646941 -0.538385 2.218724 80 81 85
0.640571 -0.543424 2.196876 75 76 80
0.634473 -0.548494 2.175965 69 72 75
0.628921 -0.553846 2.156921 64 66 69
0.625269 -0.560724 2.144397 61 62 66
0.620800 -0.566738 2.129070 61 62 66
0.617955 -0.574116 2.119312 53 56 59
0.616187 -0.582421 2.113251 49 51 55
0.613872 -0.590142 2.105311 41 43 49
0.611821 -0.598048 2.098278 35 40 46
0.609495 -0.605612 2.090299 31 36 40
0.606624 -0.612553 2.080454 36 42 46
0.605364 -0.621053 2.076133 22 24 28
0.603022 -0.628384 2.068099 26 30 36
0.599601 -0.634499 2.056367 27 31 37
0.597787 -0.642229 2.050145 109 117 124
0.489945 -0.534280 1.680297 135 144 148
0.481837 -0.533216 1.652489 120 129 137
0.495906 -0.556790 1.700738 113 125 136
0.488594 -0.556468 1.675662 112 127 137
0.482358 -0.557153 1.654277 121 132 142
0.477461 -0.559204 1.637482 140 143 147
0.474960 -0.563942 1.628904 135 138 138
0.472192 -0.568278 1.619412 108 111 114
0.470219 -0.573494 1.612645 108 110 115
0.468244 -0.578644 1.605870 114 118 125
0.467059 -0.584719 1.601806 131 140 146
0.465606 -0.590416 1.596823 112 119 126
0.462569 -0.594033 1.586408 99 107 114
0.459007 -0.596869 1.574193 95 103 107
0.454924 -0.598902 1.560187 107 120 126
0.452418 -0.602907 1.551595 99 113 120
0.449127 -0.605772 1.540309 97 111 119
0.446624 -0.609605 1.531722 94 109 118
0.444121 -0.613358 1.523138 93 108 117
0.441358 -0.616667 1.513663 89 106 114
0.438857 -0.620257 1.505085 87 104 112
0.435837 -0.623025 1.494729 86 103 111
0.433339 -0.626449 1.486162 85 102 110
0.430065 -0.628659 1.474934 83 100 108
0.427571 -0.631916 1.466381 80 97 105
0.424562 -0.634323 1.456062 80 95 103
0.421557 -0.636638 1.445755 78 92 98
0.417011 -0.636503 1.430163 77 89 96
0.414786 -0.639803 1.422533 78 89 96
0.891865 1.396747 3.108891 121 124 118
0.893837 1.385169 3.115764 100 95 85
0.896310 1.374295 3.124385 100 96 85
0.898778 1.363332 3.132988 101 97 86
0.901240 1.352280 3.141572 102 97 87
0.903697 1.341139 3.150136 105 98 88
0.905637 1.329158 3.156899 108 101 91
0.907570 1.317103 3.163634 110 103 92
0.910520 1.306445 3.173918 112 106 94
0.912951 1.294954 3.182395 115 109 97
0.915377 1.283375 3.190849 117 111 99
0.917795 1.271706 3.199279 123 116 105
0.919432 1.258889 3.204986 143 140 131
0.921835 1.247054 3.213363 145 142 135
0.924748 1.235822 3.223517 144 141 134
0.928173 1.225170 3.235456 153 155 157
0.933670 1.217105 3.254615 254 255 254
0.941506 1.211872 3.281930 255 255 255
0.952472 1.210358 3.320155 255 255 255
0.961368 1.205890 3.351167 255 255 255
0.970013 1.200818 3.381302 255 255 255
0.977882 1.194514 3.408731 255 255 255
0.984448 1.186382 3.431618 255 255 255
0.989181 1.175855 3.448117 255 255 255
0.994172 1.165477 3.465517 255 255 255
0.998635 1.154323 3.481073 255 255 255
1.003355 1.143316 3.497528 255 255 255
1.007808 1.131854 3.513048 255 255 255
1.012782 1.120823 3.530387 255 255 255
1.017751 1.109623 3.547709 255 255 255
1.022451 1.097971 3.564091 255 255 255
1.025821 1.084758 3.575838 255 255 255
1.030771 1.073080 3.593095 255 255 255
1.034920 1.060418 3.607555 255 255 255
1.038794 1.047343 3.621060 255 255 255
1.042127 1.033605 3.632679 254 255 255
1.046514 1.020785 3.647973 251 255 254
1.050093 1.007047 3.660448 248 255 255
1.053928 0.993432 3.673817 253 255 255
1.057753 0.979681 3.687149 255 255 255
1.061567 0.965796 3.700443 255 255 255
1.064298 0.950818 3.709965 255 255 255
1.067821 0.936444 3.722242 255 255 255
1.071599 0.922175 3.735412 255 255 255
1.075365 0.907771 3.748541 255 255 255
1.078581 0.892789 3.759752 255 255 255
1.081784 0.877690 3.770916 255 255 255
1.085780 0.863118 3.784847 249 254 254
1.088956 0.847774 3.795916 238 253 254
1.093196 0.833138 3.810696 254 255 254
1.096343 0.817548 3.821666 238 247 248
1.100286 0.802435 3.835410 156 187 202
1.103403 0.786604 3.846276 126 164 187
1.106504 0.770660 3.857088 126 162 188
1.109590 0.754603 3.867844 139 170 193
1.113474 0.738974 3.881381 146 178 188
1.117613 0.723384 3.895811 139 170 167
1.122825 0.708334 3.913977 132 162 162
1.125847 0.691768 3.924513 121 149 157
1.128580 0.674930 3.934041 128 155 160
1.132657 0.658783 3.948252 157 178 175
1.136718 0.642494 3.962406 176 197 166
1.137490 0.624267 3.965097 143 169 153
1.140423 0.607165 3.975322 127 154 150
1.142246 0.589393 3.981676 127 154 150
1.142956 0.571006 3.984151 122 151 148
1.143644 0.552585 3.986550 127 154 154
1.139935 0.532089 3.973620 143 171 172
1.128810 0.508375 3.934840 112 126 123
1.111353 0.482278 3.873988 70 72 69
1.093033 0.456394 3.810129 69 71 68
1.085088 0.435273 3.782433 72 74 71
1.081226 0.415983 3.768973 71 73 70
1.081180 0.398225 3.768812 72 74 71
1.079191 0.379786 3.761879 72 74 71
1.082121 0.363061 3.772092 72 74 72
1.084208 0.345972 3.779366 70 74 70
1.115403 0.337625 3.888106 116 135 119
1.202678 0.344309 4.192331 113 137 119
1.216017 0.328176 4.238831 97 120 117
1.222739 0.309927 4.262262 100 123 124
1.226414 0.290736 4.275071 101 121 123
1.230065 0.271419 4.287800 140 149 145
1.232593 0.251753 4.296611 200 203 196
1.234821 0.231947 4.304378 225 235 230
1.235097 0.211733 4.305341 205 219 220
1.234246 0.191336 4.302375 227 240 238
1.235574 0.171269 4.307004 197 209 205
1.235775 0.151021 4.307703 166 180 180
1.235951 0.130763 4.308316 148 160 161
1.236101 0.110497 4.308840 210 218 218
1.235123 0.090144 4.305432 230 235 229
1.235223 0.069884 4.305780 176 190 178
1.235298 0.049619 4.306040 143 170 153
1.235347 0.029352 4.306211 114 137 129
1.235371 0.009083 4.306295 107 125 126
1.236473 -0.011197 4.310135 116 134 134
1.237549 -0.031512 4.313887 127 146 149
1.236394 -0.051769 4.309861 123 140 144
1.236317 -0.072051 4.309592 157 168 161
1.236214 -0.092329 4.309235 200 205 201
1.237189 -0.112701 4.312633 255 255 255
1.237036 -0.132985 4.312099 255 255 255
1.237960 -0.153396 4.315320 255 255 255
1.237756 -0.173680 4.314610 218 216 207
1.239731 -0.194298 4.321494 194 192 177
1.239477 -0.214595 4.320607 146 149 139
1.241400 -0.235297 4.327312 88 95 96
1.241095 -0.255603 4.326247 137 138 130
1.242966 -0.276383 4.332771 183 181 165
1.244536 -0.297152 4.338244 178 178 165
1.244155 -0.317475 4.336913 166 169 158
1.243748 -0.337778 4.335496 150 157 150
1.242492 -0.357824 4.331117 125 132 127
1.237639 -0.376733 4.314202 111 112 109
1.233864 -0.395829 4.301042 182 178 166
1.228145 -0.414146 4.281106 250 250 245
1.221034 -0.431782 4.256318 254 255 249
1.213081 -0.448874 4.228597 253 253 249
1.204015 -0.465274 4.196993 255 255 253
1.194659 -0.481261 4.164380 246 248 246
1.182275 -0.495671 4.121212 141 159 167
1.169059 -0.509312 4.075144 175 206 225
1.156656 -0.522886 4.031906 78 86 86
1.145336 -0.536561 3.992449 66 71 70
1.135921 -0.550788 3.959628 37 41 44
1.126767 -0.564838 3.927719 63 73 76
1.115418 -0.577450 3.888160 77 87 93
1.102971 -0.589104 3.844771 80 94 101
1.089428 -0.599745 3.797561 83 96 103
1.075336 -0.609632 3.748441 71 83 88
1.062332 -0.619690 3.703112 80 93 101
1.049326 -0.629321 3.657775 80 93 101
1.036863 -0.638858 3.614329 75 88 96
1.024398 -0.647986 3.570877 84 97 105
1.013560 -0.657761 3.533101 71 82 86
1.004348 -0.668262 3.500988 69 81 86
0.992421 -0.676610 3.459414 82 95 102
0.981037 -0.684945 3.419729 87 100 108
0.972358 -0.694840 3.389477 77 88 95
0.958810 -0.700891 3.342251 80 92 98
0.950130 -0.710135 3.311991 102 113 117
0.700486 -0.535042 2.441775 113 122 126
0.671265 -0.523737 2.339915 103 109 115
0.659592 -0.525452 2.299226 91 96 102
0.651158 -0.529417 2.269826 87 91 97
0.643803 -0.534001 2.244189 83 85 89
0.636720 -0.538573 2.219497 76 78 82
0.630980 -0.544071 2.199490 72 76 79
0.624972 -0.549145 2.178548 66 70 73
0.620572 -0.555461 2.163210 62 64 68
0.617507 -0.562849 2.152526 61 62 66
0.613636 -0.569389 2.139031 55 58 61
0.610830 -0.576808 2.129249 51 54 58
0.609085 -0.585154 2.123167 43 44 49
0.606800 -0.592915 2.115203 36 40 45
0.605042 -0.601125 2.109075 29 35 40
0.602481 -0.608465 2.100146 36 41 46
0.601241 -0.617078 2.095824 27 29 32
0.597343 -0.622879 2.082239 25 26 31
0.594504 -0.629673 2.072340 46 51 57
0.593247 -0.638076 2.067959 115 125 131
0.477653 -0.521584 1.665016 103 118 131
0.455165 -0.504496 1.586627 101 122 142
0.448528 -0.504499 1.563494 86 112 143
0.442690 -0.505196 1.543143 64 95 139
0.438436 -0.507535 1.528314 51 84 135
0.437596 -0.513743 1.525386 55 87 134
0.440419 -0.524283 1.535226 59 85 124
0.442180 -0.533635 1.541366 48 73 106
0.445497 -0.544948 1.552929 79 87 104
0.446450 -0.553438 1.556249 91 91 96
0.444526 -0.558347 1.549542 80 79 83
0.445462 -0.566832 1.552807 82 84 87
0.449247 -0.579020 1.566000 95 98 103
0.446787 -0.583179 1.557423 52 53 63
0.440181 -0.581780 1.534397 43 45 52
0.440573 -0.589526 1.535762 66 69 72
0.439148 -0.594825 1.530795 83 88 90
0.437204 -0.599366 1.524020 82 85 87
0.436032 -0.604914 1.519936 95 103 109
0.434857 -0.610419 1.515839 110 119 124
0.433166 -0.615151 1.509942 86 100 106
0.430960 -0.619090 1.502253 84 98 105
0.428754 -0.622956 1.494564 82 95 102
0.426293 -0.626375 1.485985 78 91 98
0.423578 -0.629336 1.476522 79 91 99
0.420866 -0.632211 1.467067 77 88 97
0.417647 -0.634229 1.455847 75 85 91
0.414940 -0.636926 1.446411 73 81 87
0.411222 -0.637966 1.433450 70 79 85
0.408775 -0.640878 1.424922 69 78 86
0.875904 1.394634 3.104188 117 118 111
0.877845 1.383080 3.111066 100 93 83
0.879779 1.371452 3.117921 100 95 85
0.882458 1.360907 3.127416 101 96 85
0.884882 1.349884 3.136005 103 97 87
0.887300 1.338771 3.144575 106 99 89
0.889209 1.326818 3.151341 108 101 91
0.891111 1.314791 3.158080 110 104 92
0.893510 1.303425 3.166582 113 107 95
0.895903 1.291970 3.175062 115 109 97
0.898289 1.280427 3.183519 118 112 100
0.900161 1.268079 3.190154 125 119 108
0.902533 1.256365 3.198560 143 141 133
0.905407 1.245262 3.208745 145 144 136
0.908020 1.233709 3.218005 141 139 132
0.911392 1.223086 3.229955 171 174 177
0.917314 1.215732 3.250943 255 255 255
0.924518 1.209857 3.276474 255 255 255
0.935828 1.209046 3.316555 255 255 255
0.943818 1.203625 3.344873 255 255 255
0.952587 1.198917 3.375948 255 255 255
0.959820 1.192009 3.401582 255 255 255
0.966799 1.184549 3.426317 255 255 255
0.971717 1.174365 3.443746 255 255 255
0.976374 1.163705 3.460249 255 255 255
0.980768 1.152581 3.475821 255 255 255
0.985674 1.141905 3.493211 255 255 255
0.989799 1.130172 3.507829 255 255 255
0.995216 1.119756 3.527026 255 255 255
0.999069 1.107425 3.540683 255 255 255
1.003696 1.095811 3.557080 255 255 255
1.008056 1.083755 3.572532 255 255 255
1.012932 1.072099 3.589810 255 255 255
1.016756 1.059185 3.603362 255 255 255
1.020832 1.046403 3.617810 255 255 255
1.024115 1.032684 3.629443 255 255 255
1.027911 1.019365 3.642896 253 255 254
1.031698 1.005910 3.656316 250 255 255
1.035737 0.992570 3.670631 254 255 255
1.039503 0.978839 3.683980 255 255 255
1.042733 0.964486 3.695424 255 255 255
1.045422 0.949534 3.704956 255 255 255
1.049154 0.935423 3.718183 255 255 255
1.052611 0.920945 3.730432 255 255 255
1.056319 0.906569 3.743576 255 255 255
1.060016 0.892059 3.756676 255 255 255
1.063170 0.876978 3.767854 255 255 255
1.066310 0.861780 3.778984 251 255 254
1.070233 0.847098 3.792886 241 253 254
1.073346 0.831657 3.803919 254 255 254
1.077509 0.816907 3.818670 254 255 255
1.080593 0.801220 3.829601 225 239 242
1.083396 0.785225 3.839535 125 162 185
1.086450 0.769315 3.850358 126 162 188
1.089488 0.753292 3.861126 136 168 190
1.093579 0.737878 3.875623 148 183 193
1.098458 0.722846 3.892912 138 170 166
1.102520 0.707127 3.907309 134 164 163
1.105496 0.690595 3.917856 131 160 162
1.109527 0.674604 3.932142 124 151 159
1.113274 0.658311 3.945422 141 165 166
1.116200 0.641421 3.955790 171 194 165
1.118034 0.623825 3.962290 138 164 147
1.120923 0.606738 3.972529 125 152 146
1.121643 0.588417 3.975081 119 147 144
1.122342 0.570061 3.977557 123 151 148
1.123019 0.551672 3.979959 124 151 151
1.119366 0.531204 3.967011 139 168 169
1.109488 0.508009 3.932004 116 131 130
1.090140 0.480964 3.863433 70 72 69
1.073716 0.455807 3.805230 69 72 68
1.065892 0.434705 3.777500 72 74 71
1.061819 0.415331 3.763066 71 73 70
1.061773 0.397601 3.762905 72 74 71
1.060085 0.379285 3.756920 71 73 70
1.062159 0.362309 3.764271 71 73 71
1.064755 0.345432 3.773469 70 73 69
1.087898 0.334793 3.855489 110 126 113
1.168429 0.340084 4.140890 116 139 121
1.194290 0.327689 4.232540 91 113 110
1.202264 0.309821 4.260800 95 117 114
1.206696 0.290834 4.276507 98 119 119
1.210293 0.271511 4.289254 140 150 147
1.213867 0.252064 4.301921 202 205 198
1.216062 0.232234 4.309700 225 235 230
1.215250 0.211806 4.306821 207 221 221
1.215497 0.191573 4.307698 227 239 237
1.214906 0.171213 4.305603 206 219 216
1.215104 0.150971 4.306305 170 184 182
1.216091 0.130808 4.309804 146 158 160
1.215425 0.110461 4.307443 196 203 203
1.215549 0.090195 4.307881 224 213 207
1.215647 0.069923 4.308230 184 188 172
1.215721 0.049648 4.308490 138 160 142
1.214683 0.029342 4.304813 120 142 134
1.216608 0.009094 4.311633 101 121 122
1.216606 -0.011201 4.311629 103 122 123
1.216580 -0.031495 4.311536 128 149 153
1.216529 -0.051787 4.311354 133 150 156
1.217539 -0.072141 4.314934 172 179 169
1.216351 -0.092361 4.310726 227 229 224
1.217311 -0.112740 4.314128 255 255 254
1.217160 -0.133031 4.313592 255 255 255
1.218070 -0.153449 4.316816 255 255 254
1.217869 -0.173740 4.316104 214 212 202
1.219814 -0.194366 4.322996 195 193 178
1.219563 -0.214670 4.322106 136 138 130
1.221456 -0.235379 4.328817 89 96 97
1.221155 -0.255692 4.327750 140 140 130
1.222998 -0.276479 4.334280 171 169 154
1.223730 -0.297058 4.336876 167 167 153
1.223354 -0.317374 4.335543 156 160 150
1.224037 -0.337970 4.337962 144 154 147
1.222528 -0.357947 4.332615 124 131 129
1.218831 -0.377197 4.319513 125 126 122
1.215112 -0.396316 4.306333 209 206 198
1.207315 -0.413913 4.278702 255 255 254
1.201393 -0.431924 4.257713 255 255 255
1.192480 -0.448612 4.226125 255 255 255
1.184631 -0.465420 4.198309 255 255 255
1.174607 -0.481076 4.162784 254 254 253
1.162411 -0.495472 4.119562 148 162 166
1.149126 -0.508979 4.072480 176 207 226
1.135832 -0.522038 4.025368 97 109 111
1.125763 -0.536189 3.989682 69 74 71
1.116490 -0.550398 3.956819 41 44 45
1.107475 -0.564428 3.924871 61 68 70
1.096299 -0.577020 3.885262 73 83 89
1.084041 -0.588651 3.841819 74 87 95
1.071240 -0.599570 3.796454 84 99 106
1.057899 -0.609751 3.749174 75 88 95
1.045092 -0.619803 3.703786 76 89 97
1.032015 -0.629263 3.657441 82 95 103
1.020276 -0.639125 3.615837 82 97 104
1.007999 -0.648249 3.572329 81 94 102
0.996791 -0.657670 3.532608 73 86 92
0.987451 -0.667979 3.499508 79 90 97
0.975705 -0.676310 3.457881 81 94 102
0.964494 -0.684628 3.418147 87 101 108
0.955947 -0.694508 3.387856 82 95 103
0.942605 -0.700539 3.340572 82 95 102
0.934055 -0.709766 3.310274 96 107 111
0.701236 -0.544550 2.485167 113 122 126
0.662626 -0.525621 2.348333 102 108 114
0.647415 -0.524355 2.294425 93 97 103
0.639640 -0.528728 2.266871 85 88 93
0.632927 -0.533737 2.243080 80 81 85
0.627009 -0.539206 2.222107 73 76 80
0.621355 -0.544709 2.202070 70 74 77
0.616493 -0.550731 2.184840 65 69 72
0.612685 -0.557549 2.171343 64 66 70
0.609400 -0.564726 2.159702 60 61 65
0.606374 -0.572037 2.148979 55 56 60
0.603607 -0.579496 2.139171 51 53 55
0.601360 -0.587370 2.131207 40 41 45
0.598583 -0.594642 2.121365 33 36 39
0.597896 -0.603934 2.118932 32 37 41
0.595631 -0.611583 2.110905 35 38 42
0.593100 -0.618877 2.101933 25 26 29
0.588737 -0.624146 2.086472 61 65 70
0.581768 -0.626463 2.061775 114 123 135
0.443340 -0.484795 1.571188 87 108 132
0.438889 -0.487249 1.555413 74 108 148
0.432104 -0.486925 1.531368 53 94 148
0.426885 -0.488165 1.512872 55 98 156
0.422967 -0.490740 1.498987 48 89 147
0.422156 -0.496842 1.496114 36 76 134
0.419791 -0.501060 1.487730 25 68 124
0.418714 -0.506760 1.483914 24 66 121
0.417891 -0.512735 1.480998 23 62 117
0.417835 -0.519637 1.480800 27 59 107
0.417259 -0.525880 1.478757 36 52 79
0.417190 -0.532753 1.478514 39 46 57
0.417371 -0.539947 1.479155 21 22 33
0.417545 -0.547137 1.479771 20 19 25
0.419244 -0.556357 1.485793 20 21 29
0.420677 -0.565276 1.490871 20 37 55
0.421589 -0.573535 1.494104 27 43 71
0.421983 -0.581110 1.495501 27 41 64
0.422370 -0.588688 1.496870 55 62 75
0.423255 -0.596983 1.500009 69 70 75
0.423625 -0.604572 1.501320 93 95 99
0.422724 -0.610337 1.498125 60 63 70
0.421818 -0.616066 1.494916 39 44 50
0.421161 -0.622132 1.492587 40 43 48
0.418738 -0.625538 1.484000 46 50 56
0.416819 -0.629624 1.477199 57 66 68
0.414398 -0.632880 1.468619 61 70 74
0.411478 -0.635284 1.458269 63 69 75
0.408561 -0.637596 1.447931 63 68 74
0.405398 -0.639422 1.436721 60 66 72
0.403485 -0.643136 1.429943 58 66 71
0.860217 1.392891 3.100309 111 110 102
0.861635 1.380571 3.105422 101 94 84
0.863538 1.368970 3.112280 101 94 84
0.865928 1.358068 3.120892 102 95 85
0.868312 1.347077 3.129485 103 96 86
0.870691 1.335997 3.138058 106 99 89
0.872816 1.324451 3.145719 108 101 90
0.874191 1.311707 3.150674 110 104 92
0.877048 1.301115 3.160970 112 106 94
0.878904 1.288959 3.167661 114 108 96
0.881750 1.278174 3.177917 119 113 100
0.883592 1.265854 3.184556 129 123 112
0.885426 1.253461 3.191166 142 142 133
0.888253 1.242394 3.201355 143 143 136
0.891576 1.231917 3.213331 139 137 132
0.894895 1.221321 3.225292 190 194 199
0.900472 1.213657 3.245395 255 255 255
0.908571 1.209158 3.274582 255 255 255
0.918948 1.207379 3.311981 255 255 255
0.926560 1.201662 3.339419 255 255 255
0.935191 1.196991 3.370525 255 255 255
0.942564 1.190437 3.397098 255 255 255
0.948673 1.182059 3.419116 255 255 255
0.954021 1.172539 3.438391 255 255 255
0.958859 1.162218 3.455827 255 255 255
0.962930 1.150816 3.470497 255 255 255
0.967760 1.140171 3.487904 255 255 255
0.972075 1.128764 3.503457 255 255 255
0.977663 1.118667 3.523597 255 255 255
0.981456 1.106358 3.537269 255 255 255
0.986268 1.095050 3.554609 255 255 255
0.989790 1.082170 3.567306 255 255 255
0.994075 1.069991 3.582750 255 255 255
0.998353 1.057659 3.598168 255 255 255
1.002109 1.044637 3.611702 255 255 255
1.005597 1.031214 3.624275 255 255 255
1.009850 1.018444 3.639604 254 255 254
1.013061 1.004496 3.651177 253 255 254
1.016779 0.990933 3.664575 254 255 255
1.019968 0.976738 3.676070 255 255 255
1.023405 0.962668 3.688458 255 255 255
1.026572 0.948231 3.699869 255 255 255
1.030246 0.934147 3.713110 255 255 255
1.033908 0.919928 3.726311 255 255 255
1.037299 0.905347 3.738531 255 255 255
1.040938 0.890864 3.751646 255 255 255
1.044564 0.876247 3.764717 255 255 255
1.047656 0.861068 3.775860 248 254 254
1.050734 0.845773 3.786955 241 254 254
1.054583 0.830981 3.800827 233 244 248
1.058682 0.816250 3.815597 251 254 253
1.060670 0.799789 3.822764 251 254 254
1.064741 0.784796 3.837435 169 198 211
1.066698 0.768142 3.844487 127 161 186
1.071528 0.753442 3.861896 134 168 183
1.074504 0.737307 3.872624 142 178 183
1.078518 0.721764 3.887089 137 170 167
1.082253 0.705904 3.900552 129 158 161
1.085183 0.689405 3.911111 128 157 159
1.089151 0.673449 3.925412 123 151 159
1.092048 0.656714 3.935852 131 155 162
1.095719 0.640334 3.949085 167 190 161
1.098582 0.623370 3.959402 161 186 153
1.100369 0.605717 3.965841 129 156 146
1.102136 0.587992 3.972211 127 155 147
1.102824 0.569650 3.974692 122 149 144
1.103492 0.551275 3.977097 120 147 144
1.099895 0.530819 3.964135 136 165 168
1.090171 0.507632 3.929086 114 131 132
1.072184 0.481067 3.864261 70 72 69
1.055751 0.455784 3.805033 68 71 68
1.046719 0.434128 3.772484 72 74 71
1.043241 0.414987 3.759948 71 73 70
1.043197 0.397272 3.759787 71 73 70
1.040470 0.378582 3.749960 72 74 71
1.042512 0.361639 3.757319 71 73 71
1.045599 0.344972 3.768447 69 71 69
1.062523 0.332531 3.829440 124 135 118
1.145269 0.338998 4.127668 123 143 123
1.173662 0.327492 4.229997 97 120 113
1.183646 0.310198 4.265982 102 124 119
1.186943 0.290926 4.277865 95 115 115
1.190485 0.271598 4.290629 137 147 146
1.192936 0.251920 4.299465 205 209 202
1.196166 0.232309 4.311104 226 235 230
1.197503 0.212254 4.315923 205 220 220
1.196679 0.191807 4.312954 228 239 237
1.196097 0.171422 4.310858 202 216 211
1.197094 0.151257 4.314451 132 147 145
1.197265 0.130968 4.315067 137 154 155
1.197412 0.110670 4.315595 184 195 196
1.197534 0.090366 4.316034 161 142 136
1.197631 0.070056 4.316384 200 196 183
1.196901 0.049708 4.313755 172 184 171
1.197751 0.029424 4.316819 140 162 161
1.198844 0.009113 4.320758 163 186 189
1.198843 -0.011225 4.320753 122 141 144
1.198817 -0.031562 4.320659 116 135 139
1.199836 -0.051943 4.324331 148 167 171
1.198691 -0.072229 4.320206 182 189 179
1.198591 -0.092556 4.319846 233 235 231
1.198467 -0.112878 4.319397 255 255 255
1.198318 -0.133193 4.318860 255 255 255
1.199213 -0.153637 4.322086 255 255 254
1.199015 -0.173952 4.321371 206 205 192
1.201997 -0.194776 4.332120 195 193 178
1.201749 -0.215123 4.331226 126 128 121
1.203612 -0.235875 4.337942 89 94 95
1.203315 -0.256231 4.336870 159 159 147
1.204060 -0.276816 4.339557 183 181 166
1.204781 -0.297420 4.342154 178 177 163
1.204410 -0.317760 4.340816 161 165 155
1.205081 -0.338381 4.343234 140 150 144
1.203594 -0.358382 4.337877 115 122 121
1.199953 -0.377655 4.324755 118 119 114
1.196291 -0.396797 4.311555 208 203 193
1.188614 -0.414414 4.283886 253 253 250
1.181718 -0.432057 4.259032 254 255 252
1.172942 -0.448747 4.227403 255 255 253
1.164150 -0.465133 4.195718 255 255 254
1.155344 -0.481214 4.163978 254 255 253
1.143336 -0.495609 4.120701 156 168 171
1.129195 -0.508635 4.069733 175 205 224
1.116107 -0.521674 4.022563 118 134 141
1.104072 -0.534779 3.979187 70 74 72
1.096269 -0.549597 3.951064 48 51 52
1.088188 -0.564007 3.921941 56 62 65
1.077185 -0.576578 3.882284 71 81 86
1.066174 -0.588771 3.842601 75 88 95
1.053042 -0.599384 3.795273 85 100 107
1.040172 -0.609704 3.748886 78 91 99
1.028091 -0.620064 3.705344 79 92 100
1.014952 -0.629357 3.657989 84 98 105
1.002339 -0.638541 3.612533 86 101 108
0.990253 -0.647640 3.568972 75 88 96
0.979218 -0.657036 3.529203 76 89 97
0.969760 -0.667141 3.495115 84 97 105
0.958460 -0.675627 3.454387 83 96 104
0.947422 -0.683919 3.414605 83 97 105
0.939532 -0.694162 3.386169 81 94 102
0.927445 -0.700965 3.342606 84 96 104
0.916932 -0.708575 3.304718 96 106 110
0.715197 -0.564813 2.577642 114 124 128
0.657037 -0.530029 2.368030 100 106 112
0.636835 -0.524536 2.295218 93 98 104
0.629701 -0.529343 2.269508 85 88 92
0.622570 -0.533910 2.243807 75 76 80
0.617784 -0.540286 2.226558 71 74 77
0.612217 -0.545803 2.206492 68 71 74
0.607948 -0.552311 2.191107 63 67 70
0.604715 -0.559633 2.179456 63 64 68
0.601997 -0.567329 2.169659 59 60 65
0.598497 -0.574184 2.157043 51 54 57
0.596286 -0.582179 2.149078 42 44 47
0.593554 -0.589580 2.139228 37 38 42
0.591849 -0.597927 2.133084 35 36 41
0.591684 -0.607799 2.132490 37 43 46
0.588934 -0.614965 2.122579 22 26 30
0.582837 -0.618485 2.100603 48 52 63
0.571091 -0.615710 2.058272 108 121 140
0.434919 -0.476277 1.567492 52 81 128
0.426183 -0.473940 1.536007 49 93 152
0.420533 -0.474791 1.515643 42 86 147
0.416935 -0.477802 1.502675 40 82 143
0.414104 -0.481583 1.492474 38 77 138
0.412039 -0.486171 1.485031 33 72 134
0.411245 -0.492212 1.482171 30 70 129
0.410193 -0.497910 1.478376 30 69 127
0.409390 -0.503881 1.475482 23 64 120
0.408836 -0.510135 1.473486 21 59 117
0.408530 -0.516683 1.472383 20 56 112
0.408471 -0.523538 1.472170 17 53 106
0.408152 -0.530054 1.471023 13 49 94
0.408081 -0.536884 1.470765 27 44 76
0.408003 -0.543703 1.470483 22 21 29
0.408170 -0.550850 1.471085 12 13 22
0.408078 -0.557650 1.470756 3 10 25
0.408733 -0.565478 1.473116 14 39 72
0.408879 -0.572616 1.473641 15 41 76
0.409017 -0.579749 1.474141 21 42 74
0.409149 -0.586877 1.474616 54 64 87
0.409274 -0.594000 1.475067 28 34 50
0.409642 -0.601482 1.476390 47 54 63
0.411492 -0.611180 1.483061 54 59 62
0.412339 -0.619432 1.486111 35 37 41
0.410699 -0.623936 1.480201 31 31 36
0.410295 -0.630283 1.478744 28 30 34
0.407910 -0.633540 1.470150 34 38 44
0.405527 -0.636718 1.461562 37 47 52
0.402654 -0.639038 1.451205 40 54 57
0.400275 -0.642053 1.442633 45 56 61
0.397898 -0.644991 1.434067 45 56 60
0.843584 1.389531 3.092831 107 104 94
0.844978 1.377245 3.097942 100 93 83
0.847333 1.366461 3.106576 101 94 84
0.849683 1.355588 3.115192 102 95 85
0.852028 1.344626 3.123790 103 96 86
0.854368 1.333574 3.132369 105 98 88
0.856215 1.321681 3.139140 107 100 90
0.858054 1.309713 3.145885 110 103 93
0.860376 1.298409 3.154396 112 106 95
0.862446 1.286650 3.161987 115 109 97
0.864755 1.275171 3.170451 119 112 100
0.867058 1.263603 3.178893 133 129 118
0.868861 1.251237 3.185506 141 142 134
0.871150 1.239499 3.193895 143 144 137
0.874418 1.229059 3.205878 137 137 133
0.878671 1.219874 3.221470 208 212 216
0.884655 1.212914 3.243409 255 255 255
0.892872 1.208773 3.273538 255 255 255
0.902341 1.206019 3.308251 255 255 255
0.909335 1.199675 3.333895 255 255 255
0.918077 1.195364 3.365945 255 255 255
0.924584 1.187881 3.389803 255 255 255
0.930845 1.179860 3.412755 255 255 255
0.935857 1.170063 3.431131 255 255 255
0.941117 1.160398 3.450417 255 255 255
0.945122 1.149026 3.465101 255 255 255
0.949875 1.138412 3.482525 255 255 255
0.954121 1.127035 3.498093 255 255 255
0.959620 1.116970 3.518253 255 255 255
0.963352 1.104690 3.531938 255 255 255
0.968087 1.093413 3.549296 255 255 255
0.972311 1.081404 3.564783 255 255 255
0.976275 1.068966 3.579318 255 255 255
0.979979 1.056110 3.592898 255 255 255
0.984182 1.043654 3.608305 255 255 255
0.987869 1.030516 3.621823 255 255 255
0.990785 1.016460 3.632514 254 255 255
0.993944 1.002548 3.644096 253 255 254
0.998111 0.989526 3.659373 254 255 255
1.001249 0.975359 3.670880 255 255 255
1.004887 0.961561 3.684216 255 255 255
1.007747 0.946907 3.694704 255 255 255
1.011363 0.932851 3.707959 255 255 255
1.014967 0.918659 3.721173 255 255 255
1.018560 0.904334 3.734346 255 255 255
1.021372 0.889204 3.744655 255 255 255
1.024427 0.874185 3.755855 255 255 255
1.027983 0.859479 3.768892 244 254 254
1.031011 0.844219 3.779997 240 254 254
1.034026 0.828843 3.791051 223 242 247
1.037801 0.813959 3.804888 250 254 255
1.041820 0.799132 3.819623 253 255 253
1.044793 0.783383 3.830526 245 253 254
1.048786 0.768277 3.845163 183 213 221
1.051472 0.752099 3.855011 141 177 178
1.055436 0.736721 3.869545 125 159 165
1.058350 0.720491 3.880230 132 163 167
1.062286 0.704838 3.894658 118 148 156
1.064909 0.688201 3.904276 126 156 160
1.068814 0.672279 3.918592 126 156 159
1.072704 0.656214 3.932853 140 166 172
1.076578 0.640005 3.947056 162 186 162
1.078355 0.622452 3.953572 166 190 153
1.079853 0.604681 3.959063 133 159 144
1.082634 0.587555 3.969259 124 151 143
1.083311 0.569228 3.971744 122 149 144
1.083968 0.550867 3.974153 127 153 151
1.081734 0.531064 3.965961 137 165 166
1.070075 0.506873 3.923216 120 139 138
1.053156 0.480685 3.861187 70 72 68
1.036983 0.455407 3.801889 69 71 68
1.027833 0.433651 3.768343 72 74 71
1.024148 0.414422 3.754833 71 73 70
1.024104 0.396731 3.754672 71 73 70
1.021420 0.378065 3.744832 71 73 70
1.022382 0.360777 3.748357 70 72 71
1.025944 0.344329 3.761419 68 70 68
1.041289 0.331509 3.817677 143 148 129
1.131385 0.340668 4.147997 141 158 133
1.156183 0.328182 4.238912 111 134 115
1.168898 0.311619 4.285531 104 125 120
1.168207 0.291275 4.282996 105 123 123
1.170643 0.271680 4.291927 139 148 146
1.173056 0.251996 4.300775 205 208 202
1.176498 0.232433 4.313393 224 233 228
1.176763 0.212177 4.314364 208 221 221
1.177004 0.191909 4.315248 229 239 236
1.178009 0.171744 4.318935 195 209 201
1.177413 0.151338 4.316749 137 155 151
1.178371 0.131125 4.320260 130 148 146
1.178515 0.110803 4.320790 127 145 143
1.178635 0.090475 4.321230 120 123 120
1.177942 0.070093 4.318688 151 159 160
1.178014 0.049768 4.318951 138 154 161
1.177008 0.029414 4.315265 186 213 220
1.178873 0.009116 4.322103 202 231 238
1.178083 -0.011221 4.319204 134 153 159
1.178847 -0.031571 4.322005 112 129 136
1.178797 -0.051913 4.321822 143 161 165
1.178723 -0.072251 4.321550 178 185 173
1.178624 -0.092585 4.321189 235 236 232
1.179554 -0.113014 4.324597 255 255 255
1.180459 -0.133472 4.327915 255 255 255
1.179235 -0.153684 4.323429 254 255 254
1.180091 -0.174161 4.326569 199 198 182
1.181975 -0.194837 4.333473 194 193 178
1.181730 -0.215190 4.332577 115 119 115
1.183564 -0.235949 4.339300 87 93 94
1.183271 -0.256311 4.338224 158 157 145
1.185054 -0.277148 4.344765 171 169 154
1.184712 -0.297513 4.343511 171 171 157
1.184347 -0.317860 4.342169 161 165 155
1.185006 -0.338487 4.344588 146 155 148
1.183543 -0.358493 4.339223 125 134 132
1.179959 -0.377771 4.326082 135 137 129
1.175305 -0.396563 4.309020 228 225 218
1.168797 -0.414538 4.285160 255 255 254
1.162271 -0.432281 4.261233 255 255 254
1.153371 -0.448875 4.228603 255 255 254
1.144717 -0.465262 4.196877 255 255 255
1.135003 -0.480900 4.161262 255 255 254
1.123185 -0.495276 4.117932 182 192 193
1.109266 -0.508282 4.066902 163 190 208
1.096385 -0.521300 4.019675 140 162 174
1.084540 -0.534384 3.976247 67 73 71
1.076860 -0.549183 3.948090 53 57 58
1.068125 -0.563162 3.916065 46 48 50
1.058337 -0.576265 3.880182 69 80 83
1.047240 -0.588295 3.839496 76 89 96
1.035876 -0.599788 3.797833 79 94 101
1.023208 -0.610111 3.751387 83 96 104
1.011316 -0.620473 3.707789 76 89 97
0.998384 -0.629768 3.660374 78 93 100
0.986488 -0.639288 3.616761 83 98 105
0.975110 -0.648742 3.575044 77 91 99
0.962694 -0.657095 3.529523 82 97 104
0.953384 -0.667194 3.495392 86 101 108
0.942520 -0.675856 3.455561 79 93 100
0.930622 -0.683385 3.411940 81 95 103
0.921566 -0.692638 3.378738 84 97 105
0.909155 -0.699000 3.333236 83 96 102
0.897264 -0.705342 3.289640 91 101 105
0.762831 -0.612828 2.796766 115 125 129
0.651007 -0.534228 2.386787 100 107 113
0.626750 -0.525138 2.297854 88 94 99
0.619729 -0.529950 2.272110 81 84 89
0.613222 -0.534968 2.248255 78 78 83
0.608510 -0.541359 2.230980 69 70 74
0.603796 -0.547585 2.213699 68 70 73
0.599848 -0.554357 2.199224 63 66 70
0.597175 -0.562191 2.189422 62 63 67
0.593986 -0.569440 2.177729 53 57 61
0.590792 -0.576574 2.166022 44 47 53
0.588359 -0.584353 2.157101 40 41 45
0.586175 -0.592299 2.149094 33 36 40
0.583986 -0.600165 2.141066 37 39 44
0.582805 -0.609010 2.136739 23 29 34
0.578070 -0.614037 2.119376 34 37 50
0.575866 -0.621634 2.111297 105 131 163
0.427778 -0.469159 1.568362 58 97 154
0.419682 -0.467522 1.538679 53 96 161
0.413616 -0.467902 1.516440 46 91 153
0.409321 -0.470108 1.500693 41 85 145
0.407042 -0.474515 1.492339 39 80 141
0.405516 -0.479734 1.486744 35 76 136
0.404238 -0.485198 1.482058 31 71 132
0.402706 -0.490308 1.476440 26 66 125
0.401671 -0.495981 1.472647 25 66 122
0.401132 -0.502238 1.470672 23 65 120
0.400838 -0.508787 1.469592 20 60 116
0.400538 -0.515318 1.468491 19 57 113
0.399983 -0.521506 1.466456 17 53 106
0.399174 -0.527341 1.463492 11 52 103
0.398609 -0.533473 1.461421 20 49 96
0.398288 -0.539916 1.460242 42 50 79
0.398208 -0.546680 1.459949 22 35 65
0.397875 -0.553089 1.458728 8 36 72
0.397536 -0.559479 1.457487 11 38 77
0.397685 -0.566552 1.458033 10 38 76
0.397582 -0.573265 1.457653 11 30 63
0.397963 -0.580683 1.459052 20 39 70
0.398337 -0.588103 1.460424 15 34 67
0.398704 -0.595525 1.461769 18 38 71
0.399553 -0.603688 1.464880 41 55 72
0.400393 -0.611867 1.467959 62 69 71
0.401224 -0.620061 1.471006 16 18 20
0.401559 -0.627509 1.472237 20 22 24
0.400430 -0.632655 1.468097 22 26 30
0.398571 -0.636595 1.461279 19 27 32
0.396711 -0.640472 1.454462 21 32 34
0.394368 -0.643495 1.445873 27 37 37
0.392993 -0.648033 1.440831 33 38 41
0.827004 1.386142 3.085287 103 96 86
0.828373 1.373891 3.090396 100 94 84
0.830688 1.363143 3.099031 101 94 84
0.833475 1.353081 3.109430 102 95 85
0.835781 1.342147 3.118032 103 96 86
0.838082 1.331125 3.126616 105 98 88
0.839897 1.319260 3.133389 108 101 91
0.841226 1.306574 3.138345 110 103 93
0.843989 1.296045 3.148653 112 106 95
0.845784 1.283949 3.155349 115 109 97
0.848053 1.272503 3.163817 120 112 100
0.850317 1.260967 3.172262 135 132 123
0.852090 1.248634 3.178877 142 143 135
0.854582 1.237279 3.188174 141 142 135
0.858282 1.227564 3.201978 135 138 135
0.861980 1.217715 3.215771 228 232 234
0.867866 1.210790 3.237729 255 255 254
0.876925 1.208030 3.271526 255 255 255
0.885263 1.203971 3.302634 255 255 255
0.892143 1.197662 3.328301 255 255 255
0.901232 1.194038 3.362210 255 255 255
0.907144 1.185940 3.384263 255 255 255
0.913302 1.177953 3.407238 255 255 255
0.917740 1.167561 3.423796 255 255 255
0.923406 1.158555 3.444934 255 255 255
0.928086 1.148128 3.462392 255 255 255
0.932515 1.137232 3.478915 255 255 255
0.936692 1.125878 3.494500 255 255 255
0.942349 1.116130 3.515605 255 255 255
0.946270 1.104157 3.530232 255 255 255
0.950928 1.092894 3.547611 255 255 255
0.954588 1.080337 3.561264 255 255 255
0.958737 1.068197 3.576744 255 255 255
0.962631 1.055631 3.591269 255 255 255
0.966267 1.042650 3.604835 255 255 255
0.969895 1.029533 3.618368 255 255 255
0.973014 1.015757 3.630004 255 255 255
0.976373 1.002118 3.642535 253 255 254
0.980473 0.989109 3.657832 254 255 255
0.983561 0.974953 3.669354 255 255 255
0.986137 0.960189 3.678961 255 255 255
0.989202 0.945803 3.690397 255 255 255
0.992507 0.931535 3.702728 255 255 255
0.996557 0.917835 3.717836 255 255 255
0.999588 0.903074 3.729143 255 255 255
1.002606 0.888195 3.740404 255 255 255
1.005359 0.872979 3.750675 255 255 255
1.008857 0.858301 3.763725 243 253 254
1.011837 0.843068 3.774841 240 254 254
1.015310 0.828132 3.787797 227 244 248
1.019277 0.813469 3.802597 251 255 255
1.021963 0.797666 3.812617 253 255 254
1.024888 0.781952 3.823530 248 255 254
1.028815 0.766882 3.838182 173 206 206
1.031712 0.750924 3.848988 135 170 171
1.035357 0.735396 3.862588 120 153 163
1.038224 0.719201 3.873283 124 155 162
1.043115 0.704272 3.891531 121 151 159
1.045952 0.687820 3.902114 114 144 153
1.049539 0.671748 3.915495 120 150 157
1.052344 0.655064 3.925959 113 140 150
1.056155 0.638890 3.940177 159 183 163
1.059951 0.622573 3.954338 158 180 146
1.060657 0.604362 3.956973 132 156 142
1.062368 0.586682 3.963358 125 151 144
1.063035 0.568383 3.965845 126 151 147
1.064451 0.550448 3.971128 136 162 159
1.061226 0.530144 3.959095 145 171 171
1.050782 0.506475 3.920133 123 140 139
1.033365 0.479934 3.855155 70 72 68
1.017194 0.454561 3.794827 68 70 67
1.009221 0.433276 3.765080 72 74 71
1.005595 0.414061 3.751555 71 73 70
1.005552 0.396385 3.751394 71 73 70
1.002654 0.377636 3.740582 71 73 70
1.003084 0.360183 3.742188 70 72 71
1.004784 0.343149 3.748529 68 70 68
1.021429 0.330897 3.810626 132 141 132
1.117043 0.342256 4.167332 152 173 156
1.132665 0.327153 4.225613 130 152 124
1.149050 0.311707 4.286738 121 141 137
1.149403 0.291619 4.288057 135 152 154
1.151801 0.272001 4.297001 150 157 154
1.153142 0.252069 4.302005 209 211 204
1.157563 0.232708 4.318498 225 234 230
1.158600 0.212571 4.322367 206 219 219
1.158062 0.192136 4.320359 227 238 234
1.158276 0.171832 4.321157 197 212 202
1.158466 0.151517 4.321866 140 161 150
1.159408 0.131281 4.325383 129 149 144
1.159551 0.110935 4.325914 118 131 131
1.158893 0.090521 4.323460 157 117 118
1.159764 0.070223 4.326710 179 185 192
1.159058 0.049827 4.324076 146 162 172
1.159105 0.029475 4.324250 184 211 219
1.159904 0.009127 4.327232 211 242 250
1.159903 -0.011241 4.327228 150 170 175
1.159878 -0.031609 4.327134 112 129 137
1.159828 -0.051975 4.326950 136 152 159
1.158979 -0.072289 4.323780 181 186 171
1.159658 -0.092695 4.326315 244 244 240
1.159537 -0.113047 4.325863 255 255 255
1.160427 -0.133511 4.329185 255 255 255
1.160258 -0.153867 4.328554 254 254 252
1.160066 -0.174212 4.327835 195 193 177
1.161918 -0.194894 4.334746 194 193 177
1.160643 -0.215061 4.329989 103 108 105
1.163481 -0.236018 4.340577 88 94 94
1.163192 -0.256386 4.339499 178 176 162
1.163913 -0.276984 4.342189 178 176 160
1.164610 -0.297600 4.344788 166 166 154
1.163216 -0.317671 4.339589 146 152 143
1.163865 -0.338286 4.342009 129 137 134
1.162425 -0.358280 4.336637 102 110 109
1.158898 -0.377543 4.323480 130 131 124
1.154577 -0.396410 4.307359 232 229 222
1.147916 -0.414281 4.282507 253 253 251
1.141494 -0.432009 4.258551 254 254 253
1.131965 -0.448280 4.223000 255 255 254
1.123193 -0.464530 4.190277 255 255 254
1.114665 -0.480577 4.158460 255 254 253
1.102008 -0.494471 4.111241 213 220 218
1.088314 -0.507438 4.060152 141 166 180
1.076668 -0.520914 4.016705 160 185 203
1.065013 -0.533978 3.973225 65 72 70
1.057457 -0.548758 3.945034 60 65 67
1.048862 -0.562717 3.912970 38 40 42
1.039232 -0.575800 3.877045 68 78 80
1.029594 -0.588539 3.841088 75 86 92
1.017901 -0.599730 3.797464 78 91 98
1.005692 -0.610197 3.751915 83 97 104
0.992969 -0.619914 3.704449 78 92 99
0.980755 -0.629511 3.658884 83 98 105
0.970072 -0.639689 3.619028 80 94 102
0.957855 -0.648453 3.573452 84 99 106
0.945639 -0.656789 3.527877 87 101 109
0.936988 -0.667234 3.495605 80 94 102
0.927316 -0.676631 3.459520 75 88 96
0.917896 -0.685876 3.424378 72 85 93
0.907205 -0.693818 3.384491 86 99 107
0.892708 -0.698407 3.330409 76 89 95
0.879488 -0.703508 3.281088 79 90 95
0.810296 -0.662391 3.022956 116 125 130
0.682506 -0.569911 2.546212 101 108 114
0.615367 -0.524655 2.295739 86 93 98
0.608206 -0.529230 2.269023 79 83 89
0.602309 -0.534675 2.247024 73 74 79
0.598681 -0.541968 2.233490 70 71 75
0.594546 -0.548665 2.218063 68 69 73
0.591163 -0.555924 2.205442 64 65 69
0.588530 -0.563783 2.195619 56 58 62
0.585892 -0.571544 2.185778 47 50 54
0.582748 -0.578710 2.174046 40 43 49
0.581102 -0.587280 2.167907 35 37 43
0.579950 -0.596300 2.163610 35 37 42
0.577041 -0.603442 2.152757 31 35 40
0.571882 -0.608089 2.133509 19 25 39
0.570215 -0.616330 2.127290 69 97 136
0.436554 -0.479526 1.628645 70 111 167
0.414389 -0.462455 1.545954 59 102 164
0.407176 -0.461556 1.519044 52 95 161
0.403447 -0.464414 1.505133 46 88 153
0.400216 -0.467723 1.493080 41 84 146
0.398719 -0.472975 1.487494 37 80 141
0.396972 -0.477873 1.480975 33 74 135
0.395963 -0.483611 1.477210 32 72 133
0.394703 -0.489003 1.472510 28 68 129
0.393686 -0.494657 1.468716 25 66 124
0.393157 -0.500896 1.466742 20 62 119
0.392622 -0.507110 1.464749 19 60 117
0.391838 -0.512977 1.461821 17 56 113
0.391538 -0.519461 1.460705 18 54 108
0.390745 -0.525269 1.457743 14 52 103
0.390191 -0.531376 1.455677 14 49 99
0.389632 -0.537458 1.453592 13 46 93
0.389312 -0.543853 1.452399 8 42 87
0.388743 -0.549885 1.450278 6 41 85
0.388413 -0.556239 1.449046 8 39 79
0.388563 -0.563276 1.449603 8 38 77
0.388221 -0.569598 1.448329 11 39 74
0.388116 -0.576260 1.447939 8 17 45
0.388488 -0.583634 1.449327 18 36 68
0.388853 -0.591011 1.450688 13 39 78
0.389452 -0.598759 1.452920 13 30 63
0.390042 -0.606516 1.455122 38 45 53
0.391344 -0.615413 1.459980 11 11 14
0.392875 -0.624720 1.465693 13 18 18
0.392723 -0.631374 1.465123 12 20 19
0.391371 -0.636074 1.460082 13 21 23
0.390733 -0.641898 1.457702 14 21 24
0.388427 -0.644930 1.449096 18 25 24
0.388497 -0.651868 1.449357 18 25 24
0.811178 1.383919 3.080339 100 93 83
0.812992 1.372482 3.087226 100 93 83
0.815268 1.361752 3.095870 101 94 84
0.817305 1.350546 3.103605 102 95 85
0.819101 1.338873 3.110426 103 96 86
0.821833 1.328648 3.120799 105 98 88
0.823146 1.316058 3.125784 108 101 91
0.824922 1.304154 3.132531 109 102 92
0.827639 1.293654 3.142845 112 106 94
0.829403 1.281587 3.149544 114 108 96
0.831634 1.270170 3.158017 120 113 100
